# .PCD v0.7 - Point Cloud Data file format
VERSION 0.7
FIELDS x y z
SIZE 4 4 4
TYPE F F F
COUNT 1 1 1
WIDTH 500
HEIGHT 1
VIEWPOINT 0 0 0 1 0 0 0
POINTS 500
DATA ascii
0.35222197 9.8481169 -0.10639524
-0.3974061 9.5268936 0.29260206
-0.73189831 10.667105 0.44130373
-0.73476553 10.854581 -0.036173344
-0.46070004 9.7225323 -0.91676188
0.1837492 10.968809 0.5120554
-0.99898338 9.536129 0.69178534
0.71605301 10.525135 -0.52300406
0.43938732 10.56706 0.90541744
-0.57978678 10.898706 -0.50492907
-0.75722837 9.2509279 -0.65681171
-0.86362362 10.853521 0.87008238
-0.57102156 10.121624 -0.4628129
-0.12971783 9.386858 0.39176798
-0.16589117 10.926159 0.11429977
0.91734743 9.1099081 -0.9168911
-0.57059717 10.110925 0.61923838
0.12118816 10.826979 -0.85562706
-0.40181541 9.2663651 -0.28856754
0.50360203 10.686579 0.61013842
-0.0013270378 9.9293499 -0.13893318
-0.65813875 9.0657272 0.71458864
0.21194363 10.494705 0.83621264
-0.25086927 10.364988 0.22307158
0.1408987 10.199097 -0.85077
0.25519896 9.1164446 0.25913811
-0.66169214 10.545848 0.3700633
-0.042453766 10.667036 -0.80295849
-0.89808083 10.265221 0.46340704
0.81335211 10.768823 -0.85001421
-0.57650948 10.767496 -0.92066383
-0.71544266 10.109358 0.1450634
-0.00085353851 10.321301 0.63976955
0.8353591 10.070433 -0.99524212
-0.94156933 10.211331 -0.79614496
0.20766115 10.46653 0.3203001
0.46679926 9.8048382 0.86614799
0.83686256 9.7623844 -0.46681595
0.033904076 10.864304 -0.20159483
0.49731112 9.6776562 0.56722784
-0.35270309 9.1011467 -0.66527605
0.72663355 10.385704 -0.55591822
0.87169695 10.384851 -0.23461676
-0.4885335 9.220211 -0.16418457
0.51622438 10.278641 0.047146797
-0.2799201 10.486302 0.51367712
0.040380001 10.953102 0.31851578
0.906528 9.7899647 0.080900669
0.43971205 9.8238697 0.94520473
0.23811722 10.32118 0.62286139
0.80534554 9.9684772 -0.27599144
0.14006948 10.695111 0.10971308
-0.41584873 9.5668087 0.49456453
-0.65046549 9.0782757 -0.28522491
-0.81464958 9.5944996 -0.0065836906
-0.76750278 9.314579 0.47971916
-0.25382519 9.3549595 -0.56717873
0.06469059 10.261488 -0.77721405
0.14559126 10.7012 -0.95334482
-0.90920401 10.939318 -0.632164
-0.28634262 9.7446632 -0.66368628
-0.56233406 9.8847332 0.031424999
-0.45262051 9.4688835 -0.40176678
0.041944027 10.818419 0.67650843
-0.24328089 10.003769 0.27100849
-0.24986458 9.2362671 -0.41441202
0.22985458 10.982441 0.94054794
-0.33732414 9.0471325 -0.79796457
0.88546228 9.1927233 -0.096764565
-0.067882538 10.28352 0.84255314
-0.70004654 9.9971771 0.5872159
0.63626719 9.4348431 0.47194862
0.66769218 10.982224 -0.059166908
0.26592588 9.0241671 0.75925207
0.94243431 10.780886 0.76302147
-0.7865572 10.531021 -0.00071191788
0.79903126 10.760877 0.98172998
-0.2604208 10.423553 0.028862
0.94161463 9.3090153 -0.77841425
0.84485054 9.2411327 -0.4948945
-0.31259632 10.541086 -0.49771738
0.27461958 9.1773539 0.93712616
0.74656868 9.845046 -0.080650806
0.68740177 10.110971 0.94351625
-0.55334616 9.0534067 -0.27559757
0.20967531 10.26685 0.2554245
0.20896339 9.0658808 -0.98369884
-0.80930662 10.80546 -0.56014633
-0.78044415 9.7470751 0.74886894
0.44114161 10.591926 -0.0099983215
-0.053752899 10.279329 0.53108788
-0.55147028 10.553949 -0.29155827
0.38565636 9.300518 -0.44651175
0.30500555 9.9879189 -0.33553982
-0.75147772 9.4345732 0.7178669
0.97292471 9.644249 0.98471689
-0.77165079 9.8532124 0.050597668
0.24465036 9.0439053 0.85605812
-0.31549549 10.263462 0.6031332
0.43337345 10.704603 -0.80494118
0.42337513 10.65085 -0.52561188
0.95446301 10.09938 0.028337002
0.66290522 10.485037 -0.67114496
0.21639347 10.790043 -0.68322563
-0.11914635 10.038565 0.75134802
0.59872103 9.0114899 0.3955965
-0.41656208 10.23984 0.24880886
-0.36596441 10.484489 -0.70728493
0.49009371 10.168995 -0.44382334
-0.90677309 10.602367 0.26078033
0.28828573 9.0257435 0.91163063
-0.23732615 9.9802055 -0.98898888
-0.20898867 10.643111 -0.50395203
-0.88013363 10.859505 0.28609085
0.43664074 10.740358 0.32465553
-0.81201124 9.3390799 -0.6638546
-0.41641426 10.922518 -0.42401505
-0.1676054 10.556553 0.060474873
-0.87489033 9.046648 0.2294693
0.68128681 10.139874 0.83183718
0.94206715 10.428161 -0.14241982
-0.14630222 10.190834 -0.1622138
0.86470938 9.9818459 0.4808979
0.36075735 9.1017122 -0.6595974
0.6468482 9.538353 0.080761433
0.97150421 10.726342 -0.58015871
0.30764961 10.309928 0.34235907
-0.11636543 10.142323 0.89891291
-0.05589056 9.2674332 -0.054439545
0.17357874 9.948719 0.085434914
-0.99458408 10.890787 0.51359558
0.8629961 10.744485 0.70443058
0.70078278 9.6091938 0.68627644
-0.81831932 9.9699516 -0.21201086
0.52208328 10.6168 -0.67365742
0.60284519 9.5883045 0.052684784
0.022686481 9.8959541 0.3626132
0.36504602 9.7795887 0.50493622
-0.73604107 9.7236986 -0.22763109
-0.79048061 9.8972778 -0.27891111
-0.7050457 10.902694 0.61187553
-0.19144964 9.7656898 -0.64363956
0.51298094 10.466473 0.96555471
-0.80074263 9.6481533 0.93550682
0.98724651 10.170237 -0.44769287
0.3135891 10.773083 -0.85938835
0.36627436 10.795769 -0.96343422
0.72888756 9.1608152 0.81615496
-0.76617622 10.424774 0.53985405
-0.99380732 9.6342936 0.43713188
0.72728157 10.929248 -0.66017437
-0.66084242 10.737799 -0.89448404
0.69551802 9.2507792 -0.42801094
-0.33892679 10.450037 -0.77985716
0.59658003 9.4372835 -0.60961962
0.14888716 9.7508736 0.16346264
-0.71050119 10.117147 0.95923185
0.32606459 10.846035 0.12004709
-0.85777998 10.079859 0.54482126
-0.31792593 9.0860519 0.17911482
0.11920595 9.8133335 -0.89163685
-0.54096842 9.1524906 -0.15383863
0.56454802 9.8480091 -0.90305901
0.13653708 9.5090828 -0.453022
-0.64331961 10.105662 0.98426151
0.74706078 10.254549 0.7351346
0.91052341 9.5440483 0.85228205
-0.13024426 9.8701134 -0.30168295
-0.010197163 9.0123329 -0.22182417
0.53462458 10.694407 0.86422777
0.7137394 10.813614 0.67756128
-0.17789745 10.272645 -0.16994762
-0.33173561 10.837193 -0.32193851
0.76520538 10.97373 -0.81285572
0.31218338 10.330411 -0.70719337
-0.70355511 9.0774717 -0.45264339
0.031579971 9.9879951 -0.90859509
0.88386202 9.8577509 0.96151829
0.58217955 9.8475542 -0.026148319
0.36035538 10.382179 0.66825914
-0.77541685 9.0959187 -0.51812744
-0.097855568 10.918021 -0.24548197
-0.26780319 10.586286 0.59171104
-0.58974123 9.351491 -0.43455839
0.59740305 9.6636744 -0.10414743
-0.10979033 10.960119 0.9733243
-0.56243372 10.991699 0.96131992
0.52897167 9.8755617 0.81907082
-0.50951004 10.457741 0.66662502
-0.53565788 10.818096 -0.95119619
0.13260126 10.042681 0.14472246
-0.3855257 9.9448242 -0.93725634
-0.63100767 9.677022 -0.35097075
-0.039296627 9.0872803 -0.99947977
-0.47385454 9.6846838 0.66419458
-0.57800198 9.574894 -0.37568617
0.3953228 9.0124607 0.61601353
-0.64335728 9.5414314 0.49157524
0.17571354 9.0319214 0.9493165
0.84233904 10.496264 -0.23258686
-0.10885715 10.628866 -0.1899066
0.035865307 10.24334 -0.24508142
-0.90139103 9.6123323 -0.56805944
0.74763823 9.5730362 0.51922131
-0.25184155 9.0991812 0.20390511
0.41235304 10.521179 -0.22120142
0.036667347 10.916502 0.79125881
0.65268087 10.273146 0.33269072
-0.85574389 10.448858 -0.63538694
0.093572617 9.2911978 -0.13912296
-0.13901424 9.1823406 0.48974276
-0.32892036 9.2182064 0.73308277
-0.57400179 10.316816 0.34541512
0.85793877 9.0644541 -0.081548691
-0.62283993 10.812613 -0.98236752
-0.41893482 9.224966 -0.46118784
-0.64013624 9.2616329 0.45531464
0.15112305 9.9143143 0.72845984
0.48381376 9.0585709 -0.82268095
-0.15157318 9.1521435 0.46851683
-0.29069567 9.0131292 -0.34914207
0.19904709 10.684209 0.86906481
0.93213034 10.110207 -0.81411934
-0.72245455 10.968145 0.25033474
-0.80400324 10.345306 -0.93705225
0.21362972 9.9263706 0.28791428
-0.24755812 9.2862349 -0.45045233
0.207757 9.4373579 -0.53613758
0.93621683 9.9211721 0.5224328
0.11353588 9.769599 -0.32542372
0.58205318 9.4789028 0.68770552
0.23291111 9.6779509 -0.62808561
-0.89802408 10.610081 -0.51787853
0.28785658 9.8876266 0.45026731
0.5381918 9.0836239 0.79557323
-0.39886045 9.2972536 0.72194433
-0.11094618 9.049696 0.0081791878
-0.56139803 9.257452 -0.55446243
0.90246439 10.19367 -0.63329029
-0.57510281 10.307205 -0.86369133
-0.90052652 10.889259 0.61521244
-0.21282101 9.1221704 0.2931633
-0.84090662 10.224146 0.9032445
0.64121485 10.512003 0.79087114
-0.90851784 9.0501957 -0.12550497
-0.1129446 10.651335 -0.82825136
0.60899973 10.540389 0.22144461
0.61717939 9.9789906 -0.52110291
0.062716961 10.881455 -0.32743311
-0.57057333 10.306353 -0.020226955
0.56573534 9.4058266 0.86903191
-0.81905222 9.1930056 -0.0087976456
-0.52588892 10.352099 0.2153492
0.37735558 10.993315 0.72735262
-0.8317728 10.084797 -0.22245216
-0.95727777 9.9718523 0.4288826
0.21447134 10.580853 0.96927166
0.43591595 9.1980324 0.94826269
-0.085186958 9.2607489 -0.17028189
-0.41261959 10.690176 0.13607121
-0.43284655 9.2559109 -0.45810223
0.43618536 10.436859 0.73490334
0.42738819 9.9109707 -0.91299725
0.64273739 10.288326 0.080317497
-0.62990999 9.4565535 0.1651144
-0.85236216 10.499275 0.13696671
-0.42347956 10.713747 0.71781921
0.54579258 9.149663 -0.084148884
-0.50594473 9.064476 -0.82340002
-0.67622614 10.651857 -0.13322449
-0.54015493 10.21901 -0.87731314
-0.99825716 10.655195 -0.44045401
-0.26335382 9.0825844 -0.5294838
0.82364941 9.7253208 -0.24115753
0.9039669 9.0954113 -0.78460407
-0.93091869 10.24305 -0.28532791
-0.79395199 9.8195705 0.42841911
-0.076132298 10.365362 -0.42191744
-0.16028118 9.8594179 0.64255905
-0.98368073 9.1831913 -0.70558405
0.88309479 10.643037 -0.4865737
0.0057816505 9.6447792 0.16862202
-0.43467236 9.3814259 -0.7487936
-0.96415567 10.205076 0.97652769
0.79468679 9.1090431 0.071939468
0.010083199 10.178123 0.31498861
-0.27524471 9.3841724 0.13455868
0.1531744 9.3080397 0.49992132
-0.26874304 9.1477585 0.35933971
0.37381601 10.164078 -0.45746851
-0.33176804 9.0471725 0.18556881
-0.81834173 9.0529556 -0.16965151
-0.64971924 10.618282 -0.78822517
0.60148716 9.6541271 -0.58314943
-0.42198515 10.448814 0.52589321
-0.35004568 10.458898 0.70401716
-0.035056591 10.183653 0.088189602
0.099502087 10.336827 -0.60377073
0.59942389 10.068085 0.54398823
0.9587636 10.4419 0.70806646
0.50129509 10.110133 -0.24476004
0.6868639 9.2917919 0.80819511
0.51721287 10.642073 -0.57352209
-0.27101231 9.2435589 -0.91939449
-0.85416126 10.821575 -0.4705801
-0.32826805 10.471529 -0.01168251
0.37574959 10.436472 0.17197037
0.46393919 10.535975 0.50879765
-0.13983154 9.1353989 0.57688236
0.40415716 10.094162 -0.98121643
-0.88777637 10.595457 -0.87108326
0.86746359 9.2823219 0.42070818
-0.3243413 9.7995348 -0.93721914
-0.89786291 9.5285225 0.30634022
0.1827426 10.674361 -0.87208509
-0.28783751 10.346094 -0.40055561
-0.29952002 10.721844 0.035916805
-0.12754965 9.1857824 0.57189178
0.381248 9.0459509 -0.29270935
0.95813084 9.4501076 -0.19854689
-0.023085594 10.562332 0.39691114
-0.89416885 9.4297962 -0.32076693
-0.47346067 9.1054554 -0.52123213
0.58932018 10.207592 -0.99270964
0.89566088 10.390335 -0.31834793
0.023575783 10.102497 0.027745724
-0.37697983 9.8029766 0.74958897
-0.34106255 9.6754274 -0.064628601
0.23082924 10.056675 0.98132229
-0.061879635 9.0148067 0.43143082
-0.26042652 10.99172 0.99376297
0.13648462 10.097551 0.42355871
-0.1842823 9.6240921 -0.47098637
-0.70551443 10.213411 -0.26339436
0.30177641 9.1090727 0.12694025
-0.016571522 9.1326485 0.22943735
0.011174202 10.755669 0.032414436
0.76076317 10.414606 -0.29215813
0.69613457 10.645436 -0.23548222
-0.32254314 10.583557 0.77932405
0.10888767 10.32313 -0.22895479
-0.89734936 10.459616 -0.13140297
-0.47379017 10.275333 -0.50731134
-0.94477654 9.5698185 -0.29389906
0.79182959 9.8715954 0.81517363
0.91876984 9.8550243 -0.052177429
-0.85179234 9.8661976 0.70349216
-0.8193779 10.626961 -0.88190126
0.88846445 9.3230953 -0.23646498
0.65298223 9.0005531 0.34709167
-0.56769371 9.1094408 0.67022228
-0.7966485 10.212091 -0.87016249
-0.92805099 9.7383013 -0.59482956
0.56463766 10.793526 0.97498941
0.2707386 9.5853548 0.8465848
-0.9140873 10.504125 0.70160866
-0.96626472 9.6523323 0.56780672
-0.26277256 10.832954 -0.80523205
0.85532665 9.7214193 0.51786375
0.61886168 10.374401 -0.48158312
0.96595383 9.8067074 0.62785769
-0.36382389 9.0100594 0.83994913
0.76601362 10.082008 0.57825089
0.17118406 10.646646 -0.6282239
-0.85382605 10.917385 0.95713091
-0.0072412491 10.003298 -0.53874445
0.69436789 9.0370331 -0.88641167
-0.73782539 10.774261 -0.053456783
0.45694304 9.6295881 -0.33203745
0.97480679 10.248449 0.04236412
0.49322367 9.2144032 -0.15092802
-0.87891865 10.85058 0.85913181
-0.03896904 9.6165934 0.94114065
0.53928185 9.7877779 -0.41221237
-0.088942051 10.933952 0.50517321
0.86818886 10.92671 0.50847149
0.32944441 9.6210785 -0.45449495
-0.55696726 10.883253 0.31976652
-0.61042404 9.3401966 -0.050645351
-0.94246149 10.315003 0.19780493
-0.90009737 10.808228 -0.58779144
0.94897509 9.9293089 0.26278877
-0.1918931 9.8903399 -0.12061787
0.74924803 10.429622 -0.33283997
0.33703566 10.340679 0.60111189
0.84220886 9.208868 -0.47217703
-0.64931965 9.5383129 -0.85109854
0.8961854 10.981346 0.032155037
-0.7840476 10.370922 -0.62764835
-0.83469296 9.4284611 -0.31264448
-0.63688803 10.528364 0.49558306
0.77532101 9.4773388 0.42489195
-0.96189022 9.2854462 0.31523228
0.91749191 10.034695 0.74485397
0.58465242 10.37173 -0.9144659
-0.81423569 9.2139387 0.2944026
0.71358728 10.564619 -0.16728401
-0.13751078 9.4608049 0.8140626
-0.10535574 10.676758 -0.81501484
-0.73300362 9.8420639 0.61344624
0.9543519 9.2051773 -0.85818958
-0.55006504 9.9804974 0.61914968
-0.12517309 9.0186081 -0.095403671
0.19005919 9.9361 -0.060709476
0.93491364 10.520752 0.31102085
0.020447731 9.7065163 -0.47504044
0.31485033 10.420104 0.089579105
0.1475668 10.282593 -0.44961596
0.96162939 10.177238 0.22714138
0.14661455 9.4442348 0.069205761
0.76006079 10.398586 -0.72561741
-0.098128319 9.8485212 -0.74511957
0.52102137 9.7233486 0.27348804
0.42561769 9.9134083 0.20958805
0.3649087 10.848322 0.73034
0.67592955 10.868769 0.43685675
0.20088911 9.1836195 0.85696125
0.29046822 9.3311863 -0.8604455
-0.15914774 10.292816 -0.68320751
0.067993641 10.43943 0.76102686
0.13719988 9.1994915 -0.84038687
-0.58841753 9.1013632 -0.99186563
0.66646338 9.622385 0.73148298
0.93995142 10.048002 0.64489079
-0.85046053 10.412911 -0.50678778
-0.12012005 9.0888405 0.36198139
0.3167367 9.2897301 -0.45439911
-0.82630205 9.5801983 0.87678766
0.31325293 9.421051 -0.83039665
-0.36995459 9.4890451 -0.39096594
0.39107275 9.6262455 0.80852556
-0.44931412 9.0378275 -0.090111256
0.55882072 9.7042904 -0.46772671
-0.70969629 10.644243 -0.41972399
-0.064805508 9.7937822 -0.0068125725
-0.57159328 9.6736622 -0.91797161
-0.20961189 9.9903994 0.37175894
-0.664011 9.1640968 -0.048042297
0.21277666 9.4773502 -0.62699127
-0.61761951 9.1073961 0.86205387
0.99141455 9.4984684 0.48829889
-0.20005989 9.0491543 -0.47387314
-0.29017115 9.607975 -0.76958227
-0.75789785 10.898279 -0.12533951
0.82237864 10.833473 -0.3315568
0.81556606 10.261881 -0.65789461
-0.10240507 10.052269 -0.66749525
0.26935387 9.388258 0.49660254
0.22131157 9.6010342 -0.02604723
-0.4056797 10.983416 -0.9186511
0.45637465 9.9748297 0.57981777
0.94467354 9.7747698 -0.37102699
0.4708004 9.4845982 -0.76305151
-0.29878139 10.726702 0.13522816
-0.4241209 9.5490799 0.96870184
-0.7556777 10.364646 -0.76941729
0.58642817 10.262241 -0.71714878
-0.081067085 10.531595 0.6711092
0.41553545 10.752907 0.27214432
0.3894887 10.347227 -0.74444056
-0.52916241 10.803602 -0.7696104
0.050655842 9.7482758 -0.99484062
-0.32037115 10.219076 0.48975849
0.91657734 9.9202948 -0.78354025
-0.9481945 9.4961739 0.76553965
0.020507812 10.740497 -0.8698144
-0.74890947 9.3269253 -0.60757303
0.53394175 9.2458572 -0.075978279
-0.79494858 9.6613941 0.67692852
-0.52280426 10.050882 -0.97584438
0.73275518 9.5217199 -0.17224264
-0.036855221 9.5723763 -0.42396736
0.96830463 9.2520046 -0.2048912
-0.54193687 10.168583 -0.28459644
0.67452288 9.2203884 -0.78842211
-0.55993748 9.2408962 -0.047925472
0.57024813 10.491986 -0.72100067
-0.037324905 9.0259285 0.52485704
-0.11330271 10.23098 0.18625069
0.56362581 9.7081757 0.23713303
-0.41221857 10.440931 -0.24114656
-0.58446121 10.404076 -0.66877079
0.99157143 9.3723812 0.58323431
0.7866807 10.830444 0.75181675
0.50208426 9.5049667 -0.027795315
-0.28633785 10.945029 -0.78689909
-0.33426332 9.5152779 -0.29491282
0.944736 9.477953 0.73101568
-0.53040648 9.3646507 0.9619956
-0.34415579 9.9282761 0.67017126
-0.10702229 9.516058 -0.88889742
-0.34816885 10.931597 -0.48482132
0.98306036 9.9231682 0.88755941
-0.43370533 10.709848 -0.28199673
0.31811142 9.2119331 -0.77702999
0.29031658 10.925595 0.16799927
-0.49658251 10.591332 -0.31672335
-0.79149532 9.536068 -0.83877039
-0.060479164 9.005662 0.52587986
0.90151644 10.661507 0.45415592
