ply
format ascii 1.0
comment PCL generated
element vertex 500
property float x
property float y
property float z
element camera 1
property float view_px
property float view_py
property float view_pz
property float x_axisx
property float x_axisy
property float x_axisz
property float y_axisx
property float y_axisy
property float y_axisz
property float z_axisx
property float z_axisy
property float z_axisz
property float focal
property float scalex
property float scaley
property float centerx
property float centery
property int viewportx
property int viewporty
property float k1
property float k2
end_header
50.352222 -0.15188313 -0.10639524
49.602592 -0.47310591 0.29260206
49.268101 0.66710472 0.44130373
49.265236 0.85458088 -0.036173344
49.539299 -0.2774682 -0.91676188
50.18375 0.96880913 0.5120554
49.001015 -0.463871 0.69178534
50.716053 0.52513456 -0.52300406
50.439388 0.56705952 0.90541744
49.420212 0.89870596 -0.50492907
49.242771 -0.74907207 -0.65681171
49.136375 0.85352182 0.87008238
49.428978 0.12162399 -0.4628129
49.870281 -0.61314154 0.39176798
49.83411 0.92615843 0.11429977
50.917347 -0.8900919 -0.9168911
49.429401 0.11092472 0.61923838
50.121189 0.82697821 -0.85562706
49.598183 -0.73363447 -0.28856754
50.503601 0.68657875 0.61013842
49.998672 -0.070649624 -0.13893318
49.341862 -0.93427277 0.71458864
50.211945 0.49470568 0.83621264
49.74913 0.36498833 0.22307158
50.1409 0.19909716 -0.85077
50.255199 -0.88355541 0.25913811
49.338306 0.54584789 0.3700633
49.957546 0.66703606 -0.80295849
49.101921 0.26522064 0.46340704
50.813351 0.76882267 -0.85001421
49.423492 0.76749611 -0.92066383
49.284557 0.10935736 0.1450634
49.999146 0.32130146 0.63976955
50.835358 0.070432186 -0.99524212
49.05843 0.21133137 -0.79614496
50.207661 0.46653032 0.3203001
50.466801 -0.19516182 0.86614799
50.836861 -0.23761511 -0.46681595
50.033905 0.86430407 -0.20159483
50.497311 -0.32234383 0.56722784
49.647297 -0.89885283 -0.66527605
50.726635 0.38570452 -0.55591822
50.871696 0.38485098 -0.23461676
49.511467 -0.77978945 -0.16418457
50.516224 0.27864122 0.047146797
49.720081 0.48630238 0.51367712
50.040379 0.95310211 0.31851578
50.906528 -0.21003532 0.080900669
50.439713 -0.17613077 0.94520473
50.238117 0.32118034 0.62286139
50.805344 -0.031522274 -0.27599144
50.140068 0.69511127 0.10971308
49.584152 -0.43319178 0.49456453
49.349533 -0.9217248 -0.28522491
49.185349 -0.40550041 -0.0065836906
49.232498 -0.68542051 0.47971916
49.746174 -0.64504051 -0.56717873
50.06469 0.26148748 -0.77721405
50.145592 0.70120001 -0.95334482
49.090797 0.93931723 -0.632164
49.713657 -0.25533724 -0.66368628
49.437668 -0.11526728 0.031424999
49.547379 -0.53111601 -0.40176678
50.041943 0.81841898 0.67650843
49.756718 0.0037693977 0.27100849
49.750137 -0.76373339 -0.41441202
50.229855 0.98244143 0.94054794
49.662674 -0.95286798 -0.79796457
50.885464 -0.80727673 -0.096764565
49.932117 0.28351974 0.84255314
49.299953 -0.002822876 0.5872159
50.636269 -0.56515646 0.47194862
50.667694 0.98222303 -0.059166908
50.265926 -0.97583294 0.75925207
50.942436 0.78088617 0.76302147
49.213444 0.5310216 -0.00071191788
50.79903 0.76087666 0.98172998
49.739578 0.42355251 0.028862
50.941616 -0.6909852 -0.77841425
50.844849 -0.75886726 -0.4948945
49.687405 0.5410862 -0.49771738
50.27462 -0.82264614 0.93712616
50.746567 -0.15495396 -0.080650806
50.687401 0.11097193 0.94351625
49.446655 -0.94659328 -0.27559757
50.209675 0.26684952 0.2554245
50.208961 -0.93411922 -0.98369884
49.190693 0.80545998 -0.56014633
49.219555 -0.25292492 0.74886894
50.441143 0.59192562 -0.0099983215
49.946247 0.2793293 0.53108788
49.448528 0.55394888 -0.29155827
50.385658 -0.69948244 -0.44651175
50.305004 -0.012080669 -0.33553982
49.248524 -0.56542683 0.7178669
50.972923 -0.35575151 0.98471689
49.228348 -0.14678764 0.050597668
50.244652 -0.95609426 0.85605812
49.684505 0.26346159 0.6031332
50.433372 0.7046032 -0.80494118
50.423374 0.6508503 -0.52561188
50.954464 0.099380493 0.028337002
50.662907 0.48503685 -0.67114496
50.216393 0.7900424 -0.68322563
49.880852 0.038564682 0.75134802
50.598721 -0.98851013 0.3955965
49.583439 0.23983908 0.24880886
49.634037 0.48448992 -0.70728493
50.490093 0.16899443 -0.44382334
49.093227 0.60236788 0.26078033
50.288284 -0.97425699 0.91163063
49.762672 -0.019793987 -0.98898888
49.791012 0.64311123 -0.50395203
49.119865 0.8595047 0.28609085
50.436642 0.74035883 0.32465553
49.187988 -0.66092014 -0.6638546
49.583588 0.92251778 -0.42401505
49.832394 0.55655336 0.060474873
49.125111 -0.95335245 0.2294693
50.681286 0.13987446 0.83183718
50.942066 0.42816067 -0.14241982
49.853699 0.19083452 -0.1622138
50.864708 -0.018154144 0.4808979
50.360756 -0.89828777 -0.6595974
50.646847 -0.46164656 0.080761433
50.971504 0.7263422 -0.58015871
50.307648 0.30992794 0.34235907
49.883636 0.14232302 0.89891291
49.944111 -0.73256731 -0.054439545
50.17358 -0.051280499 0.085434914
49.005417 0.89078665 0.51359558
50.862995 0.7444849 0.70443058
50.700783 -0.39080572 0.68627644
49.181679 -0.03004837 -0.21201086
50.522083 0.61680031 -0.67365742
50.602844 -0.41169548 0.052684784
50.022686 -0.10404587 0.3626132
50.365047 -0.22041082 0.50493622
49.263958 -0.27630138 -0.22763109
49.209518 -0.10272217 -0.27891111
49.294952 0.90269375 0.61187553
49.808552 -0.23430967 -0.64363956
50.512981 0.4664731 0.96555471
49.199257 -0.35184622 0.93550682
50.987247 0.17023706 -0.44769287
50.313591 0.77308226 -0.85938835
50.366276 0.79576921 -0.96343422
50.728889 -0.83918476 0.81615496
49.233826 0.42477417 0.53985405
49.006191 -0.36570644 0.43713188
50.72728 0.92924786 -0.66017437
49.339157 0.73779821 -0.89448404
50.695518 -0.74922085 -0.42801094
49.661072 0.450037 -0.77985716
50.596581 -0.56271648 -0.60961962
50.148888 -0.24912691 0.16346264
49.289497 0.11714745 0.95923185
50.326065 0.846035 0.12004709
49.14222 0.07985878 0.54482126
49.682076 -0.91394854 0.17911482
50.119205 -0.18666649 -0.89163685
49.45903 -0.84750891 -0.15383863
50.564548 -0.15199089 -0.90305901
50.136536 -0.49091768 -0.453022
49.356682 0.10566235 0.98426151
50.747063 0.2545495 0.7351346
50.910522 -0.45595169 0.85228205
49.869755 -0.12988663 -0.30168295
49.989803 -0.98766661 -0.22182417
50.534626 0.69440746 0.86422777
50.713737 0.81361341 0.67756128
49.822102 0.272645 -0.16994762
49.668266 0.83719301 -0.32193851
50.765205 0.97373056 -0.81285572
50.312183 0.33041096 -0.70719337
49.296444 -0.92252827 -0.45264339
50.031578 -0.012004852 -0.90859509
50.883862 -0.14224911 0.96151829
50.58218 -0.15244579 -0.026148319
50.360355 0.38217878 0.66825914
49.224583 -0.90408182 -0.51812744
49.902145 0.9180212 -0.24548197
49.732197 0.58628559 0.59171104
49.410259 -0.64850903 -0.43455839
50.597404 -0.33632565 -0.10414743
49.890209 0.96011925 0.9733243
49.437565 0.99169922 0.96131992
50.528973 -0.12443829 0.81907082
49.49049 0.45774126 0.66662502
49.46434 0.81809664 -0.95119619
50.132603 0.042680264 0.14472246
49.614475 -0.055175304 -0.93725634
49.368992 -0.32297802 -0.35097075
49.960705 -0.91271925 -0.99947977
49.526146 -0.3153162 0.66419458
49.421997 -0.42510653 -0.37568617
50.395325 -0.98753977 0.61601353
49.356644 -0.4585681 0.49157524
50.175713 -0.96807814 0.9493165
50.842339 0.49626398 -0.23258686
49.891144 0.62886572 -0.1899066
50.035866 0.24334002 -0.24508142
49.09861 -0.38766766 -0.56805944
50.747639 -0.42696428 0.51922131
49.748158 -0.90081882 0.20390511
50.412354 0.52117968 -0.22120142
50.036667 0.91650248 0.79125881
50.652679 0.2731452 0.33269072
49.144257 0.44885874 -0.63538694
50.093575 -0.70880222 -0.13912296
49.860985 -0.8176589 0.48974276
49.671082 -0.78179359 0.73308277
49.425999 0.31681585 0.34541512
50.857941 -0.93554592 -0.081548691
49.377159 0.81261301 -0.98236752
49.581066 -0.77503395 -0.46118784
49.359863 -0.7383666 0.45531464
50.151123 -0.08568573 0.72845984
50.483814 -0.94142962 -0.82268095
49.848427 -0.847857 0.46851683
49.709305 -0.98687077 -0.34914207
50.199047 0.68420887 0.86906481
50.932129 0.11020708 -0.81411934
49.277546 0.96814585 0.25033474
49.195995 0.34530592 -0.93705225
50.213631 -0.073628902 0.28791428
49.752441 -0.71376514 -0.45045233
50.207756 -0.5626421 -0.53613758
50.936218 -0.078827858 0.5224328
50.113537 -0.23040104 -0.32542372
50.582054 -0.52109671 0.68770552
50.23291 -0.32204914 -0.62808561
49.101974 0.6100812 -0.51787853
50.287857 -0.11237335 0.45026731
50.538193 -0.91637611 0.79557323
49.601139 -0.70274639 0.72194433
49.889053 -0.95030451 0.0081791878
49.438602 -0.74254751 -0.55446243
50.902466 0.1936698 -0.63329029
49.424896 0.30720568 -0.86369133
49.099472 0.88925886 0.61521244
49.787178 -0.87782955 0.2931633
49.159092 0.22414637 0.9032445
50.641216 0.51200342 0.79087114
49.091484 -0.94980478 -0.12550497
49.887054 0.65133476 -0.82825136
50.609001 0.54038906 0.22144461
50.61718 -0.021008968 -0.52110291
50.062717 0.88145542 -0.32743311
49.429428 0.30635262 -0.020226955
50.565735 -0.59417343 0.86903191
49.180946 -0.80699444 -0.0087976456
49.47411 0.35209942 0.2153492
50.377357 0.99331427 0.72735262
49.168228 0.084796906 -0.22245216
49.042721 -0.028147697 0.4288826
50.21447 0.58085251 0.96927166
50.435917 -0.8019681 0.94826269
49.914814 -0.73925114 -0.17028189
49.587379 0.69017553 0.13607121
49.567154 -0.74408913 -0.45810223
50.436184 0.43685913 0.73490334
50.427387 -0.089029789 -0.91299725
50.642738 0.28832626 0.080317497
49.37009 -0.54344654 0.1651144
49.147636 0.49927568 0.13696671
49.576519 0.71374702 0.71781921
50.545792 -0.85033703 -0.084148884
49.494057 -0.93552351 -0.82340002
49.323772 0.6518569 -0.13322449
49.459846 0.21901035 -0.87731314
49.001743 0.65519571 -0.44045401
49.736645 -0.9174161 -0.5294838
50.82365 -0.27467871 -0.24115753
50.903969 -0.9045887 -0.78460407
49.06908 0.24304914 -0.28532791
49.206047 -0.18042994 0.42841911
49.923866 0.36536264 -0.42191744
49.839718 -0.14058208 0.64255905
49.016319 -0.81680822 -0.70558405
50.883095 0.64303684 -0.4865737
50.005783 -0.35522032 0.16862202
49.565327 -0.61857367 -0.7487936
49.035843 0.20507574 0.97652769
50.794685 -0.89095736 0.071939468
50.010082 0.17812395 0.31498861
49.724754 -0.61582804 0.13455868
50.153175 -0.69196033 0.49992132
49.731258 -0.85224104 0.35933971
50.373817 0.16407824 -0.45746851
49.668232 -0.95282698 0.18556881
49.18166 -0.94704485 -0.16965151
49.350281 0.61828279 -0.78822517
50.601486 -0.34587288 -0.58314943
49.578014 0.44881439 0.52589321
49.649956 0.45889759 0.70401716
49.964943 0.18365288 0.088189602
50.099503 0.33682728 -0.60377073
50.599422 0.068084717 0.54398823
50.958763 0.44190073 0.70806646
50.501297 0.11013317 -0.24476004
50.686863 -0.70820856 0.80819511
50.517212 0.6420722 -0.57352209
49.728989 -0.75644064 -0.91939449
49.14584 0.82157469 -0.4705801
49.67173 0.47152901 -0.01168251
50.375748 0.43647242 0.17197037
50.46394 0.53597498 0.50879765
49.860168 -0.86460114 0.57688236
50.404156 0.094162464 -0.98121643
49.112225 0.59545755 -0.87108326
50.867462 -0.71767807 0.42070818
49.675659 -0.2004652 -0.93721914
49.102139 -0.47147751 0.30634022
50.182743 0.67436123 -0.87208509
49.712162 0.34609365 -0.40055561
49.700481 0.72184324 0.035916805
49.872452 -0.81421757 0.57189178
50.381248 -0.95404911 -0.29270935
50.95813 -0.54989195 -0.19854689
49.976913 0.56233215 0.39691114
49.105831 -0.57020426 -0.32076693
49.526539 -0.89454508 -0.52123213
50.589321 0.20759201 -0.99270964
50.89566 0.39033461 -0.31834793
50.023575 0.1024971 0.027745724
49.62302 -0.19702291 0.74958897
49.658936 -0.32457256 -0.064628601
50.230827 0.056675434 0.98132229
49.938122 -0.98519373 0.43143082
49.739574 0.99172068 0.99376297
50.136486 0.097551823 0.42355871
49.81572 -0.37590837 -0.47098637
49.294487 0.21341181 -0.26339436
50.301777 -0.89092731 0.12694025
49.983429 -0.86735106 0.22943735
50.011173 0.75566912 0.032414436
50.760765 0.41460657 -0.29215813
50.696136 0.64543629 -0.23548222
49.677456 0.58355665 0.77932405
50.108887 0.32313013 -0.22895479
49.10265 0.45961523 -0.13140297
49.526211 0.27533293 -0.50731134
49.055222 -0.43018103 -0.29389906
50.791828 -0.12840462 0.81517363
50.91877 -0.14497614 -0.052177429
49.148209 -0.13380194 0.70349216
49.180622 0.62696123 -0.88190126
50.888466 -0.6769042 -0.23646498
50.652981 -0.99944735 0.34709167
49.432304 -0.8905592 0.67022228
49.20335 0.21209145 -0.87016249
49.071949 -0.26169872 -0.59482956
50.564636 0.79352522 0.97498941
50.270737 -0.4146452 0.8465848
49.085915 0.50412464 0.70160866
49.033737 -0.34766769 0.56780672
49.737228 0.83295488 -0.80523205
50.855328 -0.27858067 0.51786375
50.618862 0.37440157 -0.48158312
50.965954 -0.19329214 0.62785769
49.636177 -0.98994017 0.83994913
50.766014 0.082008839 0.57825089
50.171185 0.6466465 -0.6282239
49.146175 0.91738558 0.95713091
49.99276 0.0032982826 -0.53874445
50.694366 -0.96296644 -0.88641167
49.262177 0.77426147 -0.053456783
50.456944 -0.37041187 -0.33203745
50.974808 0.2484498 0.04236412
50.493225 -0.78559637 -0.15092802
49.121082 0.85057974 0.85913181
49.961029 -0.38340664 0.94114065
50.539284 -0.2122221 -0.41221237
49.911057 0.93395185 0.50517321
50.868187 0.92671061 0.50847149
50.329445 -0.37892151 -0.45449495
49.443031 0.88325357 0.31976652
49.389576 -0.65980339 -0.050645351
49.057537 0.3150034 0.19780493
49.099903 0.80822754 -0.58779144
50.948975 -0.070691109 0.26278877
49.808105 -0.10966015 -0.12061787
50.749249 0.4296217 -0.33283997
50.337036 0.34067965 0.60111189
50.842209 -0.7911315 -0.47217703
49.350681 -0.46168661 -0.85109854
50.896187 0.98134613 0.032155037
49.215954 0.37092257 -0.62764835
49.165306 -0.57153893 -0.31264448
49.363113 0.52836418 0.49558306
50.775322 -0.52266073 0.42489195
49.038109 -0.71455383 0.31523228
50.917492 0.034694195 0.74485397
50.584652 0.37172985 -0.9144659
49.185764 -0.78606129 0.2944026
50.713589 0.56461906 -0.16728401
49.862488 -0.53919506 0.8140626
49.894646 0.67675734 -0.81501484
49.266998 -0.15793562 0.61344624
50.954353 -0.79482317 -0.85818958
49.449936 -0.019502163 0.61914968
49.874828 -0.98139238 -0.095403671
50.19006 -0.063900471 -0.060709476
50.934914 0.52075195 0.31102085
50.020447 -0.29348326 -0.47504044
50.31485 0.42010403 0.089579105
50.147568 0.28259325 -0.44961596
50.961628 0.17723799 0.22714138
50.146614 -0.55576563 0.069205761
50.760059 0.39858627 -0.72561741
49.901871 -0.15147877 -0.74511957
50.521023 -0.27665186 0.27348804
50.425617 -0.086592197 0.20958805
50.36491 0.84832144 0.73034
50.67593 0.86876917 0.43685675
50.20089 -0.8163805 0.85696125
50.290466 -0.66881371 -0.8604455
49.840851 0.29281569 -0.68320751
50.067993 0.43943024 0.76102686
50.137199 -0.8005085 -0.84038687
49.411583 -0.89863682 -0.99186563
50.666462 -0.37761545 0.73148298
50.939953 0.04800272 0.64489079
49.14954 0.41291142 -0.50678778
49.879879 -0.91115904 0.36198139
50.316738 -0.71026993 -0.45439911
49.173698 -0.41980124 0.87678766
50.313251 -0.57894897 -0.83039665
49.630047 -0.51095486 -0.39096594
50.391071 -0.37375498 0.80852556
49.550686 -0.96217251 -0.090111256
50.558823 -0.29570913 -0.46772671
49.290302 0.64424276 -0.41972399
49.935196 -0.20621777 -0.0068125725
49.428406 -0.32633781 -0.91797161
49.79039 -0.0096006393 0.37175894
49.335991 -0.83590269 -0.048042297
50.212776 -0.52264977 -0.62699127
49.382381 -0.89260387 0.86205387
50.991413 -0.50153112 0.48829889
49.799942 -0.95084524 -0.47387314
49.709827 -0.39202452 -0.76958227
49.242104 0.89827919 -0.12533951
50.82238 0.83347368 -0.3315568
50.815567 0.2618804 -0.65789461
49.897594 0.052268505 -0.66749525
50.269356 -0.61174202 0.49660254
50.221313 -0.39896536 -0.02604723
49.594322 0.98341513 -0.9186511
50.456375 -0.025170326 0.57981777
50.944672 -0.22523022 -0.37102699
50.470802 -0.51540136 -0.76305151
49.701218 0.72670126 0.13522816
49.575878 -0.4509201 0.96870184
49.244324 0.36464596 -0.76941729
50.58643 0.26224089 -0.71714878
49.918934 0.53159475 0.6711092
50.415535 0.75290632 0.27214432
50.389488 0.3472271 -0.74444056
49.470837 0.80360174 -0.7696104
50.050655 -0.25172472 -0.99484062
49.67963 0.21907616 0.48975849
50.916576 -0.079705238 -0.78354025
49.051804 -0.50382614 0.76553965
50.020508 0.74049664 -0.8698144
49.251091 -0.6730752 -0.60757303
50.533943 -0.75414228 -0.075978279
49.205051 -0.33860636 0.67692852
49.477196 0.050882339 -0.97584438
50.732754 -0.47828007 -0.17224264
49.963146 -0.42762423 -0.42396736
50.968304 -0.74799538 -0.2048912
49.458061 0.16858244 -0.28459644
50.674522 -0.77961206 -0.78842211
49.440063 -0.75910425 -0.047925472
50.570248 0.49198627 -0.72100067
49.962677 -0.9740715 0.52485704
49.886696 0.23097992 0.18625069
50.563625 -0.29182434 0.23713303
49.58778 0.44093084 -0.24114656
49.415539 0.4040761 -0.66877079
50.99157 -0.62761927 0.58323431
50.786682 0.83044386 0.75181675
50.502083 -0.49503326 -0.027795315
49.713661 0.94502926 -0.78689909
49.665737 -0.48472261 -0.29491282
50.944736 -0.52204704 0.73101568
49.469593 -0.63534975 0.9619956
49.655846 -0.071723938 0.67017126
49.892979 -0.48394251 -0.88889742
49.651833 0.93159628 -0.48482132
50.983059 -0.076832294 0.88755941
49.566296 0.7098484 -0.28199673
50.318111 -0.78806686 -0.77702999
50.290318 0.92559528 0.16799927
49.503418 0.59133244 -0.31672335
49.208504 -0.46393156 -0.83877039
49.939522 -0.99433804 0.52587986
50.901516 0.66150665 0.45415592
0 0 0 1 0 0 0 1 0 0 0 1 0 0 0 0 0 500 1 0 0
